# .PCD v0.7 - Point Cloud Data file format
VERSION 0.7
FIELDS x y z intensity
SIZE 4 4 4 4
TYPE F F F F
COUNT 1 1 1 1
WIDTH 87
HEIGHT 1
VIEWPOINT 0 0 0 1 0 0 0
POINTS 87
DATA ascii
0.72415924 0.16487122 2.8403969 0.0047709532
-0.23117614 0.19323683 1.4840225 0.0013487637
-1.041687 -0.26862144 1.9056168 7.5217336e-05
0.66780376 1.073514 2.7723978 0.019062959
0.50561905 1.0146887 2.2914839 0.011151548
0.65920877 0.54370332 1.9949472 0.011877384
1.0063343 0.52339786 1.9824777 0.0081590191
0.72609329 1.0147692 2.3122563 0.01073835
0.31281662 0.065891266 3.0634012 2.2504479e-05
-1.1915305 -0.17982912 2.1796765 0.0003112331
-0.49816895 -0.29156494 1.6437378 8.828938e-07
-0.25234985 0.28415227 2.4092283 0.0014754906
39.292175 0 -19.733225 7.4505806e-09
39.292175 0 -19.733225 7.4505806e-09
0.065129399 0.25352448 1.9738765 0.029609382
1.2893782 -0.52718687 2.5605884 0.0016349331
0.23843384 -0.61878204 3.1428833 4.1317195e-05
0.91947174 -0.5248661 2.7868156 0.00030471385
1.3307714 -0.22884464 2.5656548 0.0005579479
1.1625972 0.62096453 2.5833831 0.0069575869
-0.94837952 0.11549377 1.844841 1.8849969e-06
0.51983261 0.33671284 2.941709 0.0048854612
-2.3359375 -3 -5.75 0.0020018145
0.88790894 -0.20636749 2.7721558 1.7266721e-05
0.016708374 0.47592926 2.3719406 0.00075579435
0.9092474 0.94283688 2.6177976 0.034476906
0.67935324 0.51086485 2.4166989 0.022280544
-0.051992416 0.20692444 3.2583933 0.0030489191
-0.99608994 0.63978004 1.8396893 1.1481345e-05
0.22666228 0.48814943 2.0960734 0.027701087
-0.50416809 0.25417295 3.5594282 0.025821924
0.053508759 1.0366583 2.9072647 0.0030077249
0.48781085 1.0413835 2.6906784 0.01804604
-0.53891563 -0.33379173 3.5298786 0.022313431
-0.17781067 1.0135989 2.327919 2.6524067e-06
1.2059975 -0.19901848 2.6467628 8.424744e-05
0.55820322 0.54860872 2.9083209 0.00050786883
0.55763006 0.54130042 2.9107265 0.0035803728
-0.29043579 -0.10649872 1.5016832 1.8294901e-05
-0.50416809 0.25417295 3.5594282 0.025821924
-0.23522186 -0.2532177 3.3831558 0.00019747019
-0.0029754639 0.78027344 3.0126228 0.00031572208
39.292175 0 -19.733225 7.4505806e-09
0.89672279 0.11502457 2.7389603 0.0074023865
1.0341334 0.51240659 2.4800134 0.0070496649
1.0341334 0.51240659 2.4800134 0.0070496649
0.88663799 0.88219887 2.2693393 0.025754422
-0.80090332 -0.16320801 1.7908325 1.0058284e-07
0.41497803 -0.10985565 3.0439396 7.2602183e-05
0.24853516 1.0559855 2.7908592 0.00068840384
-0.010855198 0.5065729 1.9401531 0.013418235
0.26268622 0.99289274 2.3552225 0.016854491
1.0736303 1.0039582 2.2233911 0.0039579496
-0.65002441 0.39343262 1.6835938 1.7136335e-07
-0.26258433 0.64057696 1.4625566 0.0038178265
-0.16801071 -0.17698598 3.3224735 0.00018278137
-0.66419649 -5.3135719 -5.3646154 0.0027216971
0.21293551 1.0259246 2.4745994 0.002069518
0.21293551 1.0259246 2.4745994 0.002069518
0.49354553 -0.48608398 3.0270538 0.00052263588
0.69929886 1.0640721 2.7586308 0.014479466
-1.1873207 -0.012422562 2.1242828 2.9668212e-05
-0.71398926 0.69459534 1.684082 1.6912818e-06
0.48781085 1.0413835 2.6906784 0.022225045
-1.3735284 0.78309917 2.3665485 0.003943339
-0.22140694 0.21577263 3.3607283 0.0084029362
-1.1849461 0.25408936 2.1147766 1.1753291e-05
0.16662598 -0.59779358 3.1714478 0.00010398775
0.98686028 0.13956547 2.7110038 0.00085731596
-0.67132568 0.14274311 1.710968 4.8428774e-08
-1.3780556 0.79633713 2.3605664 0.003267467
-1.4339256 0.9222579 2.4606686 0.0073283389
1.2491636 0.84103298 2.4978137 0.03200528
0.29904747 0.076984406 3.0645185 0.0029729381
-0.3057785 -0.1861887 1.5213203 1.1175871e-05
0.52708817 0.18931007 2.9485579 0.0012800545
0.5669136 -0.52317119 2.9535408 0.00048184395
-0.79644775 0.30992889 1.7673035 1.0579824e-06
1.3348236 0.084943771 2.5212402 2.3122877e-05
1.3348236 0.084943771 2.5212402 2.3122877e-05
-0.71963501 0.70344543 1.6868744 2.1606684e-07
0.91532588 0.94188881 2.6179883 0.016339801
-0.016955376 0.87025869 2.161202 0.022432487
-0.80090332 -0.16320801 1.7908325 3.2782555e-07
0.51626492 0.14990759 2.9429264 0.0002737008
1.2901917 0.32897186 2.5405121 2.9210001e-05
-5.0052719 -1.251318 0 9.3922019e-05
